163.661400 -88.275600 10.000000 -0.836680 -0.540781 -0.086729
163.270800 -88.275600 16.000000 -0.836161 -0.543761 -0.071818
163.270800 -88.275600 18.000000 -0.836459 -0.543955 -0.066711
163.270800 -88.275600 34.000000 0.803041 0.595261 0.028078
162.880200 -88.275600 4.000000 -0.832358 -0.544629 -0.102760
162.489600 -88.275600 20.000000 -0.833615 -0.548840 -0.062133
162.099000 -88.275600 22.000000 -0.832284 -0.551388 -0.057220
161.708400 -88.275600 38.000000 0.795052 0.606299 0.017159
161.317800 -88.275600 24.000000 -0.829285 -0.556356 -0.052486
161.317800 -88.275600 36.000000 0.792842 0.608994 0.022981
161.317800 -88.275600 38.000000 0.792933 0.609065 0.017238
160.927200 -88.275600 26.000000 -0.827854 -0.558933 -0.047457
159.364800 -88.275600 28.000000 -0.821241 -0.568964 -0.042941
159.364800 -88.275600 40.000000 0.781961 0.623217 0.011759
157.802400 -88.275600 42.000000 0.772607 0.634856 0.005989
157.411800 -88.275600 30.000000 -0.812390 -0.581847 -0.038424
156.240000 -88.275600 44.000000 0.762692 0.646762 0.000000
155.458800 -88.275600 34.000000 -0.803041 -0.595261 -0.028078
155.458800 -88.275600 46.000000 0.757501 0.652805 -0.006159
154.287000 -88.275600 48.000000 0.749415 0.661983 -0.012490
153.896400 -88.275600 38.000000 -0.795052 -0.606299 -0.017159
153.505800 -88.275600 36.000000 -0.792842 -0.608994 -0.022981
153.505800 -88.275600 38.000000 -0.792933 -0.609065 -0.017238
151.943400 -88.275600 50.000000 0.732200 0.680817 -0.019268
151.552800 -88.275600 40.000000 -0.781961 -0.623217 -0.011759
149.990400 -88.275600 42.000000 -0.772607 -0.634856 -0.005989
149.599800 -88.275600 52.000000 0.713435 0.700223 -0.026424
148.428000 -88.275600 44.000000 -0.762692 -0.646762 -0.000000
147.646800 -88.275600 46.000000 -0.757501 -0.652805 0.006159
147.256200 -88.275600 54.000000 0.692980 0.720156 -0.033970
146.475000 -88.275600 48.000000 -0.749415 -0.661983 0.012490
144.912600 -88.275600 56.000000 0.670689 0.740553 -0.041918
144.131400 -88.275600 50.000000 -0.732200 -0.680817 0.019268
141.787800 -88.275600 52.000000 -0.713435 -0.700223 0.026424
139.444200 -88.275600 54.000000 -0.692980 -0.720156 0.033970
137.100600 -88.275600 56.000000 -0.670689 -0.740553 0.041918
172.254600 -88.666200 12.000000 0.837775 0.540012 0.080749
171.864000 -88.666200 8.000000 0.835531 0.541829 0.091149
171.864000 -88.666200 12.000000 0.836261 0.542302 0.081092
171.864000 -88.666200 14.000000 0.836594 0.542519 0.076054
171.473400 -88.666200 6.000000 0.833594 0.543869 0.096575
171.473400 -88.666200 16.000000 0.835377 0.545032 0.071313
171.473400 -88.666200 18.000000 0.835669 0.545223 0.066242
170.692200 -88.666200 4.000000 0.830027 0.548228 0.102473
170.692200 -88.666200 20.000000 0.832831 0.550079 0.061691
169.911000 -88.666200 22.000000 0.829896 0.554993 0.057055
169.520400 -88.666200 24.000000 0.828507 0.557549 0.052107
168.739200 -88.666200 26.000000 0.825413 0.562543 0.047317
164.442600 -88.666200 12.000000 -0.837775 -0.540012 -0.080749
164.052000 -88.666200 8.000000 -0.835531 -0.541829 -0.091149
164.052000 -88.666200 12.000000 -0.836261 -0.542302 -0.081092
164.052000 -88.666200 14.000000 -0.836594 -0.542519 -0.076054
163.661400 -88.666200 6.000000 -0.833594 -0.543869 -0.096575
163.661400 -88.666200 16.000000 -0.835377 -0.545032 -0.071313
163.661400 -88.666200 18.000000 -0.835669 -0.545223 -0.066242
163.270800 -88.666200 34.000000 0.800358 0.598869 0.027985
162.880200 -88.666200 4.000000 -0.830027 -0.548228 -0.102473
162.880200 -88.666200 20.000000 -0.832831 -0.550079 -0.061691
162.099000 -88.666200 22.000000 -0.829896 -0.554993 -0.057055
161.708400 -88.666200 24.000000 -0.828507 -0.557549 -0.052107
160.927200 -88.666200 26.000000 -0.825413 -0.562543 -0.047317
159.755400 -88.666200 40.000000 0.781384 0.623941 0.011662
157.802400 -88.666200 42.000000 0.769673 0.638411 0.005966
156.240000 -88.666200 44.000000 0.759685 0.650291 0.000000
155.458800 -88.666200 34.000000 -0.800358 -0.598869 -0.027985
155.458800 -88.666200 46.000000 0.754459 0.656318 -0.006134
154.287000 -88.666200 48.000000 0.746321 0.665470 -0.012439
152.334000 -88.666200 50.000000 0.731979 0.681059 -0.019095
151.943400 -88.666200 40.000000 -0.781384 -0.623941 -0.011662
149.990400 -88.666200 42.000000 -0.769673 -0.638411 -0.005966
149.990400 -88.666200 52.000000 0.713379 0.700289 -0.026179
148.428000 -88.666200 44.000000 -0.759685 -0.650291 -0.000000
147.646800 -88.666200 46.000000 -0.754459 -0.656318 0.006134
147.256200 -88.666200 54.000000 0.689599 0.723402 -0.033804
146.475000 -88.666200 48.000000 -0.746321 -0.665470 0.012439
145.303200 -88.666200 56.000000 0.671059 0.740241 -0.041509
144.522000 -88.666200 50.000000 -0.731979 -0.681059 0.019095
142.178400 -88.666200 52.000000 -0.713379 -0.700289 0.026179
139.444200 -88.666200 54.000000 -0.689599 -0.723402 0.033804
137.491200 -88.666200 56.000000 -0.671059 -0.740241 0.041509
172.254600 -89.056800 12.000000 0.835491 0.543572 0.080529
171.864000 -89.056800 8.000000 0.833238 0.545392 0.090899
171.864000 -89.056800 10.000000 0.833610 0.545636 0.085887
171.864000 -89.056800 14.000000 0.834292 0.546082 0.075845
171.473400 -89.056800 6.000000 0.831289 0.547434 0.096308
171.473400 -89.056800 16.000000 0.833056 0.548598 0.071115
171.473400 -89.056800 18.000000 0.833347 0.548789 0.066058
171.082800 -89.056800 4.000000 0.000000 -1.000000 0.000000
170.692200 -89.056800 4.000000 0.000000 -1.000000 0.000000
170.692200 -89.056800 20.000000 0.830474 0.553650 0.061517
170.301600 -89.056800 4.000000 0.000000 -1.000000 0.000000
170.301600 -89.056800 22.000000 0.829126 0.556184 0.056648
169.911000 -89.056800 4.000000 0.000000 -1.000000 0.000000
169.520400 -89.056800 4.000000 0.000000 -1.000000 0.000000
169.520400 -89.056800 24.000000 0.826099 0.561124 0.051956
169.129800 -89.056800 4.000000 0.000000 -1.000000 0.000000
168.739200 -89.056800 4.000000 0.000000 -1.000000 0.000000
168.739200 -89.056800 26.000000 0.822971 0.566120 0.047177
168.348600 -89.056800 4.000000 0.000000 -1.000000 0.000000
167.958000 -89.056800 4.000000 0.000000 -1.000000 0.000000
167.567400 -89.056800 4.000000 0.000000 -1.000000 0.000000
167.567400 -89.056800 28.000000 0.817993 0.573657 0.042493
167.176800 -89.056800 4.000000 0.000000 -1.000000 0.000000
166.786200 -89.056800 4.000000 0.000000 -1.000000 0.000000
166.395600 -89.056800 4.000000 0.000000 -1.000000 0.000000
166.005000 -89.056800 4.000000 0.000000 -1.000000 0.000000
165.614400 -89.056800 4.000000 0.000000 -1.000000 0.000000
165.614400 -89.056800 30.000000 0.809090 0.586454 0.038011
165.223800 -89.056800 4.000000 0.000000 -1.000000 0.000000
164.833200 -89.056800 4.000000 0.000000 -1.000000 0.000000
164.442600 -89.056800 4.000000 0.000000 -1.000000 0.000000
164.442600 -89.056800 12.000000 -0.835491 -0.543572 -0.080529
164.052000 -89.056800 4.000000 0.000000 -1.000000 0.000000
164.052000 -89.056800 8.000000 -0.833238 -0.545392 -0.090899
164.052000 -89.056800 10.000000 -0.833610 -0.545636 -0.085887
164.052000 -89.056800 14.000000 -0.834292 -0.546082 -0.075845
164.052000 -89.056800 34.000000 0.801680 0.597114 0.027644
163.661400 -89.056800 4.000000 0.000000 -1.000000 0.000000
163.661400 -89.056800 6.000000 -0.831289 -0.547434 -0.096308
163.661400 -89.056800 16.000000 -0.833056 -0.548598 -0.071115
163.661400 -89.056800 18.000000 -0.833347 -0.548789 -0.066058
163.270800 -89.056800 4.000000 -0.829294 -0.549471 -0.101754
162.880200 -89.056800 20.000000 -0.830474 -0.553650 -0.061517
162.489600 -89.056800 22.000000 -0.829126 -0.556184 -0.056648
161.708400 -89.056800 24.000000 -0.826099 -0.561124 -0.051956
161.708400 -89.056800 38.000000 0.789543 0.613458 0.017041
160.927200 -89.056800 26.000000 -0.822971 -0.566120 -0.047177
159.755400 -89.056800 28.000000 -0.817993 -0.573657 -0.042493
159.755400 -89.056800 40.000000 0.778544 0.627483 0.011620
158.193000 -89.056800 42.000000 0.769177 0.639009 0.005917
157.802400 -89.056800 30.000000 -0.809090 -0.586454 -0.038011
156.240000 -89.056800 34.000000 -0.801680 -0.597114 -0.027644
156.240000 -89.056800 44.000000 0.756687 0.653777 0.000000
155.458800 -89.056800 46.000000 0.751426 0.659789 -0.006109
154.287000 -89.056800 48.000000 0.743237 0.668913 -0.012387
153.896400 -89.056800 38.000000 -0.789543 -0.613458 -0.017041
152.334000 -89.056800 50.000000 0.728812 0.684450 -0.019012
151.943400 -89.056800 40.000000 -0.778544 -0.627483 -0.011620
150.381000 -89.056800 42.000000 -0.769177 -0.639009 -0.005917
148.428000 -89.056800 44.000000 -0.756687 -0.653777 -0.000000
147.646800 -89.056800 46.000000 -0.751426 -0.659789 0.006109
147.646800 -89.056800 54.000000 0.689770 0.723254 -0.033484
146.475000 -89.056800 48.000000 -0.743237 -0.668913 0.012387
145.303200 -89.056800 56.000000 0.667633 0.743344 -0.041297
144.522000 -89.056800 50.000000 -0.728812 -0.684450 0.019012
139.834800 -89.056800 54.000000 -0.689770 -0.723254 0.033484
137.491200 -89.056800 56.000000 -0.667633 -0.743344 0.041297
172.645200 -89.447400 12.000000 0.834729 0.544823 0.079974
172.254600 -89.447400 8.000000 0.832491 0.546636 0.090270
172.254600 -89.447400 10.000000 0.832857 0.546876 0.085293
172.254600 -89.447400 14.000000 0.833529 0.547317 0.075319
171.864000 -89.447400 6.000000 0.830552 0.548668 0.095639
171.864000 -89.447400 16.000000 0.832294 0.549818 0.070619
171.864000 -89.447400 18.000000 0.832580 0.550007 0.065597
171.082800 -89.447400 20.000000 0.829713 0.554839 0.061083
170.301600 -89.447400 22.000000 0.826751 0.559726 0.056486
169.911000 -89.447400 24.000000 0.825346 0.562267 0.051584
169.129800 -89.447400 26.000000 0.822226 0.567232 0.046836
167.958000 -89.447400 28.000000 0.817262 0.574720 0.042181
166.005000 -89.447400 30.000000 0.808393 0.587433 0.037725
164.833200 -89.447400 12.000000 -0.834729 -0.544823 -0.079974
164.442600 -89.447400 8.000000 -0.832491 -0.546636 -0.090270
164.442600 -89.447400 10.000000 -0.832857 -0.546876 -0.085293
164.442600 -89.447400 14.000000 -0.833529 -0.547317 -0.075319
164.052000 -89.447400 6.000000 -0.830552 -0.548668 -0.095639
164.052000 -89.447400 16.000000 -0.832294 -0.549818 -0.070619
164.052000 -89.447400 18.000000 -0.832580 -0.550007 -0.065597
163.270800 -89.447400 20.000000 -0.829713 -0.554839 -0.061083
162.489600 -89.447400 22.000000 -0.826751 -0.559726 -0.056486
162.099000 -89.447400 24.000000 -0.825346 -0.562267 -0.051584
162.099000 -89.447400 36.000000 0.788848 0.614175 0.022539
161.708400 -89.447400 36.000000 0.786706 0.616913 0.022639
161.708400 -89.447400 38.000000 0.786794 0.616982 0.016981
161.317800 -89.447400 26.000000 -0.822226 -0.567232 -0.046836
160.146000 -89.447400 28.000000 -0.817262 -0.574720 -0.042181
160.146000 -89.447400 40.000000 0.777998 0.628161 0.011526
158.193000 -89.447400 30.000000 -0.808393 -0.587433 -0.037725
158.193000 -89.447400 42.000000 0.766272 0.642489 0.005894
156.240000 -89.447400 44.000000 0.753696 0.657223 0.000000
155.849400 -89.447400 46.000000 0.751060 0.660206 -0.006057
154.287000 -89.447400 36.000000 -0.788848 -0.614175 -0.022539
154.287000 -89.447400 48.000000 0.740163 0.672315 -0.012336
153.896400 -89.447400 36.000000 -0.786706 -0.616913 -0.022639
153.896400 -89.447400 38.000000 -0.786794 -0.616982 -0.016981
152.724600 -89.447400 50.000000 0.728624 0.684655 -0.018844
152.334000 -89.447400 40.000000 -0.777998 -0.628161 -0.011526
150.381000 -89.447400 42.000000 -0.766272 -0.642489 -0.005894
148.428000 -89.447400 44.000000 -0.753696 -0.657223 -0.000000
148.037400 -89.447400 46.000000 -0.751060 -0.660206 0.006057
148.037400 -89.447400 54.000000 0.689938 0.723108 -0.033170
146.475000 -89.447400 48.000000 -0.740163 -0.672315 0.012336
145.693800 -89.447400 56.000000 0.668028 0.743011 -0.040900
144.912600 -89.447400 50.000000 -0.728624 -0.684655 0.018844
140.225400 -89.447400 54.000000 -0.689938 -0.723108 0.033170
137.881800 -89.447400 56.000000 -0.668028 -0.743011 0.040900
173.035800 -89.838000 12.000000 0.833975 0.546055 0.079426
172.254600 -89.838000 8.000000 0.830208 0.550138 0.090023
172.254600 -89.838000 10.000000 0.830571 0.550379 0.085058
172.254600 -89.838000 14.000000 0.831237 0.550820 0.075112
171.864000 -89.838000 6.000000 0.000000 -1.000000 0.000000
171.864000 -89.838000 16.000000 0.829984 0.553323 0.070423
171.864000 -89.838000 18.000000 0.830268 0.553512 0.065415
171.473400 -89.838000 6.000000 0.000000 -1.000000 0.000000
171.082800 -89.838000 6.000000 0.000000 -1.000000 0.000000
171.082800 -89.838000 20.000000 0.827369 0.558347 0.060911
170.692200 -89.838000 6.000000 0.000000 -1.000000 0.000000
170.692200 -89.838000 22.000000 0.826004 0.560867 0.056087
170.301600 -89.838000 6.000000 0.000000 -1.000000 0.000000
169.911000 -89.838000 6.000000 0.000000 -1.000000 0.000000
169.911000 -89.838000 24.000000 0.822951 0.565779 0.051434
169.520400 -89.838000 6.000000 0.000000 -1.000000 0.000000
169.129800 -89.838000 6.000000 0.000000 -1.000000 0.000000
169.129800 -89.838000 26.000000 0.819798 0.570746 0.046697
168.739200 -89.838000 6.000000 0.000000 -1.000000 0.000000
168.348600 -89.838000 6.000000 0.000000 -1.000000 0.000000
168.348600 -89.838000 28.000000 0.816541 0.575766 0.041874
167.958000 -89.838000 6.000000 0.000000 -1.000000 0.000000
167.567400 -89.838000 6.000000 0.000000 -1.000000 0.000000
167.176800 -89.838000 6.000000 0.000000 -1.000000 0.000000
166.786200 -89.838000 6.000000 0.000000 -1.000000 0.000000
166.395600 -89.838000 6.000000 0.000000 -1.000000 0.000000
166.005000 -89.838000 6.000000 0.000000 -1.000000 0.000000
166.005000 -89.838000 30.000000 0.805835 0.590945 0.037606
165.614400 -89.838000 6.000000 0.000000 -1.000000 0.000000
165.223800 -89.838000 6.000000 0.000000 -1.000000 0.000000
165.223800 -89.838000 12.000000 -0.833975 -0.546055 -0.079426
164.833200 -89.838000 6.000000 0.000000 -1.000000 0.000000
164.442600 -89.838000 6.000000 0.000000 -1.000000 0.000000
164.442600 -89.838000 8.000000 -0.830208 -0.550138 -0.090023
164.442600 -89.838000 10.000000 -0.830571 -0.550379 -0.085058
164.442600 -89.838000 14.000000 -0.831237 -0.550820 -0.075112
164.442600 -89.838000 34.000000 0.798387 0.601524 0.027342
164.052000 -89.838000 6.000000 -0.828257 -0.552172 -0.095375
164.052000 -89.838000 16.000000 -0.829984 -0.553323 -0.070423
164.052000 -89.838000 18.000000 -0.830268 -0.553512 -0.065415
164.052000 -89.838000 34.000000 0.796391 0.604159 0.027462
163.270800 -89.838000 20.000000 -0.827369 -0.558347 -0.060911
162.880200 -89.838000 22.000000 -0.826004 -0.560867 -0.056087
162.099000 -89.838000 24.000000 -0.822951 -0.565779 -0.051434
162.099000 -89.838000 38.000000 0.786207 0.617734 0.016847
161.317800 -89.838000 26.000000 -0.819798 -0.570746 -0.046697
160.536600 -89.838000 28.000000 -0.816541 -0.575766 -0.041874
160.536600 -89.838000 40.000000 0.777460 0.628828 0.011433
158.583600 -89.838000 42.000000 0.765807 0.643044 0.005846
158.193000 -89.838000 30.000000 -0.805835 -0.590945 -0.037606
156.630600 -89.838000 34.000000 -0.798387 -0.601524 -0.027342
156.240000 -89.838000 34.000000 -0.796391 -0.604159 -0.027462
156.240000 -89.838000 44.000000 0.750714 0.660628 0.000000
155.849400 -89.838000 46.000000 0.748061 0.663603 -0.006033
154.677600 -89.838000 48.000000 0.739885 0.672622 -0.012229
154.287000 -89.838000 38.000000 -0.786207 -0.617734 -0.016847
152.724600 -89.838000 40.000000 -0.777460 -0.628828 -0.011433
152.724600 -89.838000 50.000000 0.725496 0.687970 -0.018763
150.771600 -89.838000 42.000000 -0.765807 -0.643044 -0.005846
150.771600 -89.838000 52.000000 0.710067 0.703670 -0.025588
148.428000 -89.838000 44.000000 -0.750714 -0.660628 -0.000000
148.037400 -89.838000 46.000000 -0.748061 -0.663603 0.006033
148.037400 -89.838000 54.000000 0.686637 0.726251 -0.033011
146.865600 -89.838000 48.000000 -0.739885 -0.672622 0.012229
146.084400 -89.838000 56.000000 0.668416 0.742684 -0.040510
144.912600 -89.838000 50.000000 -0.725496 -0.687970 0.018763
142.959600 -89.838000 52.000000 -0.710067 -0.703670 0.025588
141.787800 -89.838000 60.000000 0.000000 1.000000 0.000000
141.397200 -89.838000 60.000000 0.000000 1.000000 0.000000
141.006600 -89.838000 60.000000 0.000000 1.000000 0.000000
140.616000 -89.838000 60.000000 0.000000 1.000000 0.000000
140.225400 -89.838000 54.000000 -0.686637 -0.726251 0.033011
140.225400 -89.838000 60.000000 0.000000 1.000000 0.000000
139.834800 -89.838000 60.000000 0.000000 1.000000 0.000000
139.444200 -89.838000 60.000000 0.000000 1.000000 0.000000
139.053600 -89.838000 60.000000 0.000000 1.000000 0.000000
138.663000 -89.838000 60.000000 0.000000 1.000000 0.000000
138.272400 -89.838000 56.000000 -0.668416 -0.742684 0.040510
138.272400 -89.838000 60.000000 0.000000 1.000000 0.000000
137.881800 -89.838000 60.000000 0.000000 1.000000 0.000000
137.491200 -89.838000 60.000000 0.000000 1.000000 0.000000
137.100600 -89.838000 60.000000 0.000000 1.000000 0.000000
136.710000 -89.838000 60.000000 0.000000 1.000000 0.000000
136.319400 -89.838000 60.000000 0.000000 1.000000 0.000000
135.928800 -89.838000 60.000000 0.000000 1.000000 0.000000
135.538200 -89.838000 60.000000 0.000000 1.000000 0.000000
135.147600 -89.838000 60.000000 0.000000 1.000000 0.000000
134.757000 -89.838000 60.000000 0.000000 1.000000 0.000000
134.366400 -89.838000 60.000000 0.000000 1.000000 0.000000
173.035800 -90.228600 12.000000 0.831714 0.549525 0.079211
172.645200 -90.228600 8.000000 0.829482 0.551332 0.089405
172.645200 -90.228600 10.000000 0.829840 0.551570 0.084475
172.645200 -90.228600 14.000000 0.830496 0.552007 0.074595
172.254600 -90.228600 16.000000 0.829244 0.554494 0.069936
172.254600 -90.228600 18.000000 0.829523 0.554681 0.064963
171.082800 -90.228600 20.000000 0.825023 0.561826 0.060738
170.692200 -90.228600 22.000000 0.823641 0.564347 0.055926
169.911000 -90.228600 24.000000 0.820556 0.569261 0.051285
169.129800 -90.228600 26.000000 0.817370 0.574228 0.046559
168.348600 -90.228600 28.000000 0.814080 0.579250 0.041748
166.395600 -90.228600 30.000000 0.805164 0.591876 0.037326
165.223800 -90.228600 12.000000 -0.831714 -0.549525 -0.079211
164.833200 -90.228600 8.000000 -0.829482 -0.551332 -0.089405
164.833200 -90.228600 10.000000 -0.829840 -0.551570 -0.084475
164.833200 -90.228600 14.000000 -0.830496 -0.552007 -0.074595
164.442600 -90.228600 16.000000 -0.829244 -0.554494 -0.069936
164.442600 -90.228600 18.000000 -0.829523 -0.554681 -0.064963
163.270800 -90.228600 20.000000 -0.825023 -0.561826 -0.060738
163.270800 -90.228600 36.000000 0.789754 0.613026 0.022091
162.880200 -90.228600 22.000000 -0.823641 -0.564347 -0.055926
162.489600 -90.228600 38.000000 0.785628 0.618473 0.016715
162.099000 -90.228600 24.000000 -0.820556 -0.569261 -0.051285
161.317800 -90.228600 26.000000 -0.817370 -0.574228 -0.046559
160.536600 -90.228600 28.000000 -0.814080 -0.579250 -0.041748
160.536600 -90.228600 40.000000 0.774668 0.632266 0.011392
158.974200 -90.228600 42.000000 0.765349 0.643589 0.005798
158.583600 -90.228600 30.000000 -0.805164 -0.591876 -0.037326
156.630600 -90.228600 44.000000 0.750359 0.661031 0.000000
156.240000 -90.228600 46.000000 0.747726 0.663981 -0.005982
155.458800 -90.228600 36.000000 -0.789754 -0.613026 -0.022091
154.677600 -90.228600 38.000000 -0.785628 -0.618473 -0.016715
154.677600 -90.228600 48.000000 0.736847 0.675950 -0.012179
152.724600 -90.228600 40.000000 -0.774668 -0.632266 -0.011392
152.724600 -90.228600 50.000000 0.722380 0.691243 -0.018682
151.162200 -90.228600 42.000000 -0.765349 -0.643589 -0.005798
150.771600 -90.228600 52.000000 0.706877 0.706877 -0.025473
148.818600 -90.228600 44.000000 -0.750359 -0.661031 -0.000000
148.428000 -90.228600 46.000000 -0.747726 -0.663981 0.005982
148.428000 -90.228600 54.000000 0.686832 0.726080 -0.032706
146.865600 -90.228600 48.000000 -0.736847 -0.675950 0.012179
146.475000 -90.228600 56.000000 0.668795 0.742363 -0.040128
144.912600 -90.228600 50.000000 -0.722380 -0.691243 0.018682
142.959600 -90.228600 52.000000 -0.706877 -0.706877 0.025473
142.178400 -90.228600 60.000000 0.624565 0.778952 -0.056141
140.616000 -90.228600 54.000000 -0.686832 -0.726080 0.032706
138.663000 -90.228600 56.000000 -0.668795 -0.742363 0.040128
134.366400 -90.228600 60.000000 -0.624565 -0.778952 0.056141
173.426400 -90.619200 12.000000 0.830981 0.550709 0.078673
172.645200 -90.619200 8.000000 0.827209 0.554775 0.089160
172.645200 -90.619200 10.000000 0.827565 0.555013 0.084243
172.645200 -90.619200 14.000000 0.828216 0.555450 0.074391
172.254600 -90.619200 16.000000 0.826946 0.557939 0.069742
172.254600 -90.619200 18.000000 0.827223 0.558126 0.064783
171.473400 -90.619200 20.000000 0.824298 0.562935 0.060314
171.082800 -90.619200 22.000000 0.822918 0.565440 0.055534
170.301600 -90.619200 24.000000 0.819840 0.570324 0.050922
169.520400 -90.619200 26.000000 0.816663 0.575260 0.046226
168.348600 -90.619200 28.000000 0.811620 0.582701 0.041622
166.395600 -90.619200 30.000000 0.802624 0.595324 0.037208
165.614400 -90.619200 12.000000 -0.830981 -0.550709 -0.078673
165.614400 -90.619200 32.000000 0.798942 0.600547 0.032172
164.833200 -90.619200 8.000000 -0.827209 -0.554775 -0.089160
164.833200 -90.619200 10.000000 -0.827565 -0.555013 -0.084243
164.833200 -90.619200 14.000000 -0.828216 -0.555450 -0.074391
164.833200 -90.619200 34.000000 0.795141 0.605822 0.027046
164.442600 -90.619200 16.000000 -0.826946 -0.557939 -0.069742
164.442600 -90.619200 18.000000 -0.827223 -0.558126 -0.064783
163.661400 -90.619200 20.000000 -0.824298 -0.562935 -0.060314
163.661400 -90.619200 36.000000 0.789163 0.613793 0.021921
163.270800 -90.619200 22.000000 -0.822918 -0.565440 -0.055534
163.270800 -90.619200 38.000000 0.787165 0.616521 0.016514
162.489600 -90.619200 24.000000 -0.819840 -0.570324 -0.050922
161.708400 -90.619200 26.000000 -0.816663 -0.575260 -0.046226
160.927200 -90.619200 40.000000 0.774160 0.632890 0.011302
160.536600 -90.619200 28.000000 -0.811620 -0.582701 -0.041622
158.974200 -90.619200 42.000000 0.762496 0.646967 0.005776
158.583600 -90.619200 30.000000 -0.802624 -0.595324 -0.037208
157.802400 -90.619200 32.000000 -0.798942 -0.600547 -0.032172
157.021200 -90.619200 34.000000 -0.795141 -0.605822 -0.027046
157.021200 -90.619200 44.000000 0.750010 0.661426 0.000000
156.630600 -90.619200 46.000000 0.747396 0.664352 -0.005932
155.849400 -90.619200 36.000000 -0.789163 -0.613793 -0.021921
155.458800 -90.619200 38.000000 -0.787165 -0.616521 -0.016514
155.068200 -90.619200 48.000000 0.736599 0.676222 -0.012075
153.115200 -90.619200 40.000000 -0.774160 -0.632890 -0.011302
153.115200 -90.619200 50.000000 0.722250 0.691384 -0.018519
151.162200 -90.619200 42.000000 -0.762496 -0.646967 -0.005776
151.162200 -90.619200 52.000000 0.706881 0.706881 -0.025246
149.209200 -90.619200 44.000000 -0.750010 -0.661426 -0.000000
148.818600 -90.619200 46.000000 -0.747396 -0.664352 0.005932
148.428000 -90.619200 54.000000 0.683579 0.729151 -0.032551
147.256200 -90.619200 48.000000 -0.736599 -0.676222 0.012075
146.475000 -90.619200 56.000000 0.665485 0.745343 -0.039929
145.303200 -90.619200 50.000000 -0.722250 -0.691384 0.018519
143.350200 -90.619200 52.000000 -0.706881 -0.706881 0.025246
142.569000 -90.619200 60.000000 0.625422 0.778303 -0.055593
140.616000 -90.619200 54.000000 -0.683579 -0.729151 0.032551
138.663000 -90.619200 56.000000 -0.665485 -0.745343 0.039929
134.757000 -90.619200 60.000000 -0.625422 -0.778303 0.055593
173.426400 -91.009800 12.000000 0.828730 0.554121 0.078460
173.035800 -91.009800 8.000000 0.826504 0.555922 0.088554
173.035800 -91.009800 10.000000 0.826854 0.556158 0.083670
172.645200 -91.009800 14.000000 0.825934 0.558865 0.074186
172.645200 -91.009800 18.000000 0.826500 0.559248 0.064338
171.473400 -91.009800 20.000000 0.821965 0.566354 0.060144
171.082800 -91.009800 22.000000 0.820568 0.568860 0.055376
170.301600 -91.009800 24.000000 0.817459 0.573745 0.050774
169.520400 -91.009800 26.000000 0.814250 0.578681 0.046090
168.739200 -91.009800 28.000000 0.810939 0.583670 0.041322
166.395600 -91.009800 30.000000 0.800085 0.598739 0.037090
165.614400 -91.009800 12.000000 -0.828730 -0.554121 -0.078460
165.223800 -91.009800 8.000000 -0.826504 -0.555922 -0.088554
165.223800 -91.009800 10.000000 -0.826854 -0.556158 -0.083670
164.833200 -91.009800 14.000000 -0.825934 -0.558865 -0.074186
164.833200 -91.009800 18.000000 -0.826500 -0.559248 -0.064338
163.661400 -91.009800 20.000000 -0.821965 -0.566354 -0.060144
163.270800 -91.009800 22.000000 -0.820568 -0.568860 -0.055376
163.270800 -91.009800 38.000000 0.784496 0.619916 0.016458
162.489600 -91.009800 24.000000 -0.817459 -0.573745 -0.050774
161.708400 -91.009800 26.000000 -0.814250 -0.578681 -0.046090
160.927200 -91.009800 28.000000 -0.810939 -0.583670 -0.041322
160.927200 -91.009800 40.000000 0.771393 0.636259 0.011261
159.364800 -91.009800 42.000000 0.762068 0.647471 0.005730
158.583600 -91.009800 30.000000 -0.800085 -0.598739 -0.037090
157.411800 -91.009800 44.000000 0.749667 0.661815 0.000000
156.630600 -91.009800 46.000000 0.744455 0.667646 -0.005908
155.458800 -91.009800 38.000000 -0.784496 -0.619916 -0.016458
155.458800 -91.009800 48.000000 0.736355 0.676489 -0.011973
153.115200 -91.009800 40.000000 -0.771393 -0.636259 -0.011261
153.115200 -91.009800 50.000000 0.719173 0.694586 -0.018440
151.552800 -91.009800 42.000000 -0.762068 -0.647471 -0.005730
151.552800 -91.009800 52.000000 0.706885 0.706885 -0.025022
151.162200 -91.009800 52.000000 0.703735 0.710018 -0.025133
149.599800 -91.009800 44.000000 -0.749667 -0.661815 -0.000000
148.818600 -91.009800 46.000000 -0.744455 -0.667646 0.005908
148.818600 -91.009800 54.000000 0.683800 0.728956 -0.032255
147.646800 -91.009800 48.000000 -0.736355 -0.676489 0.011973
146.865600 -91.009800 56.000000 0.665887 0.745003 -0.039558
145.303200 -91.009800 50.000000 -0.719173 -0.694586 0.018440
143.740800 -91.009800 52.000000 -0.706885 -0.706885 0.025022
143.350200 -91.009800 52.000000 -0.703735 -0.710018 0.025133
142.569000 -91.009800 60.000000 0.622052 0.781021 -0.055294
141.006600 -91.009800 54.000000 -0.683800 -0.728956 0.032255
139.053600 -91.009800 56.000000 -0.665887 -0.745003 0.039558
134.757000 -91.009800 60.000000 -0.622052 -0.781021 0.055294
173.817000 -91.400400 12.000000 0.828018 0.555259 0.077931
173.035800 -91.400400 8.000000 0.824243 0.559308 0.088312
173.035800 -91.400400 10.000000 0.824590 0.559543 0.083441
173.035800 -91.400400 14.000000 0.825227 0.559975 0.073681
173.035800 -91.400400 16.000000 0.825515 0.560171 0.068793
172.645200 -91.400400 16.000000 0.823941 0.562451 0.069073
172.645200 -91.400400 18.000000 0.824212 0.562635 0.064160
171.864000 -91.400400 20.000000 0.821262 0.567417 0.059728
171.082800 -91.400400 22.000000 0.818218 0.572251 0.055217
170.301600 -91.400400 24.000000 0.815078 0.577136 0.050626
169.520400 -91.400400 26.000000 0.811838 0.582072 0.045953
168.739200 -91.400400 28.000000 0.808495 0.587060 0.041197
166.786200 -91.400400 30.000000 0.799458 0.599593 0.036817
166.005000 -91.400400 12.000000 -0.828018 -0.555259 -0.077931
166.005000 -91.400400 32.000000 0.795759 0.604777 0.031830
165.223800 -91.400400 8.000000 -0.824243 -0.559308 -0.088312
165.223800 -91.400400 10.000000 -0.824590 -0.559543 -0.083441
165.223800 -91.400400 14.000000 -0.825227 -0.559975 -0.073681
165.223800 -91.400400 16.000000 -0.825515 -0.560171 -0.068793
165.223800 -91.400400 34.000000 0.791942 0.610010 0.026755
164.833200 -91.400400 16.000000 -0.823941 -0.562451 -0.069073
164.833200 -91.400400 18.000000 -0.824212 -0.562635 -0.064160
164.052000 -91.400400 20.000000 -0.821262 -0.567417 -0.059728
164.052000 -91.400400 36.000000 0.785945 0.617916 0.021681
163.661400 -91.400400 36.000000 0.783860 0.620556 0.021774
163.270800 -91.400400 22.000000 -0.818218 -0.572251 -0.055217
163.270800 -91.400400 38.000000 0.781829 0.623277 0.016402
162.489600 -91.400400 24.000000 -0.815078 -0.577136 -0.050626
161.708400 -91.400400 26.000000 -0.811838 -0.582072 -0.045953
161.317800 -91.400400 40.000000 0.770914 0.636842 0.011173
160.927200 -91.400400 28.000000 -0.808495 -0.587060 -0.041197
159.364800 -91.400400 42.000000 0.759244 0.650781 0.005709
158.974200 -91.400400 30.000000 -0.799458 -0.599593 -0.036817
158.193000 -91.400400 32.000000 -0.795759 -0.604777 -0.031830
157.802400 -91.400400 44.000000 0.749329 0.662198 0.000000
157.411800 -91.400400 34.000000 -0.791942 -0.610010 -0.026755
156.630600 -91.400400 46.000000 0.741523 0.670902 -0.005885
156.240000 -91.400400 36.000000 -0.785945 -0.617916 -0.021681
155.849400 -91.400400 36.000000 -0.783860 -0.620556 -0.021774
155.458800 -91.400400 38.000000 -0.781829 -0.623277 -0.016402
155.458800 -91.400400 48.000000 0.733378 0.679716 -0.011925
153.505800 -91.400400 40.000000 -0.770914 -0.636842 -0.011173
153.115200 -91.400400 50.000000 0.716109 0.697747 -0.018362
151.552800 -91.400400 42.000000 -0.759244 -0.650781 -0.005709
151.552800 -91.400400 52.000000 0.703766 0.709994 -0.024912
149.990400 -91.400400 44.000000 -0.749329 -0.662198 -0.000000
148.818600 -91.400400 46.000000 -0.741523 -0.670902 0.005885
148.818600 -91.400400 54.000000 0.680593 0.731958 -0.032103
147.646800 -91.400400 48.000000 -0.733378 -0.679716 0.011925
146.865600 -91.400400 56.000000 0.662626 0.747915 -0.039364
145.303200 -91.400400 50.000000 -0.716109 -0.697747 0.018362
143.740800 -91.400400 52.000000 -0.703766 -0.709994 0.024912
142.959600 -91.400400 60.000000 0.622922 0.780364 -0.054762
141.006600 -91.400400 54.000000 -0.680593 -0.731958 0.032103
139.053600 -91.400400 56.000000 -0.662626 -0.747915 0.039364
135.147600 -91.400400 60.000000 -0.622922 -0.780364 0.054762
173.817000 -91.791000 12.000000 0.825778 0.558615 0.077720
173.426400 -91.791000 8.000000 0.823558 0.560409 0.087716
173.426400 -91.791000 10.000000 0.823900 0.560642 0.082878
173.035800 -91.791000 14.000000 0.822956 0.563333 0.073478
173.035800 -91.791000 16.000000 0.823243 0.563529 0.068604
172.645200 -91.791000 18.000000 0.821922 0.565995 0.063982
171.864000 -91.791000 20.000000 0.818942 0.570778 0.059559
171.473400 -91.791000 22.000000 0.817531 0.573268 0.054834
170.692200 -91.791000 24.000000 0.814399 0.578123 0.050272
169.911000 -91.791000 26.000000 0.811170 0.583028 0.045628
168.739200 -91.791000 28.000000 0.806051 0.590419 0.041073
166.786200 -91.791000 30.000000 0.796937 0.602946 0.036701
166.005000 -91.791000 12.000000 -0.825778 -0.558615 -0.077720
165.614400 -91.791000 8.000000 -0.823558 -0.560409 -0.087716
165.614400 -91.791000 10.000000 -0.823900 -0.560642 -0.082878
165.223800 -91.791000 14.000000 -0.822956 -0.563333 -0.073478
165.223800 -91.791000 16.000000 -0.823243 -0.563529 -0.068604
164.833200 -91.791000 18.000000 -0.821922 -0.565995 -0.063982
164.052000 -91.791000 20.000000 -0.818942 -0.570778 -0.059559
163.661400 -91.791000 22.000000 -0.817531 -0.573268 -0.054834
163.270800 -91.791000 38.000000 0.779167 0.626603 0.016346
162.880200 -91.791000 24.000000 -0.814399 -0.578123 -0.050272
162.099000 -91.791000 26.000000 -0.811170 -0.583028 -0.045628
161.708400 -91.791000 40.000000 0.770441 0.637415 0.011085
161.317800 -91.791000 40.000000 0.768174 0.640145 0.011133
160.927200 -91.791000 28.000000 -0.806051 -0.590419 -0.041073
159.755400 -91.791000 42.000000 0.758845 0.651247 0.005663
158.974200 -91.791000 30.000000 -0.796937 -0.602946 -0.036701
157.802400 -91.791000 44.000000 0.746451 0.665441 0.000000
157.021200 -91.791000 46.000000 0.741247 0.671207 -0.005837
155.458800 -91.791000 38.000000 -0.779167 -0.626603 -0.016346
155.458800 -91.791000 48.000000 0.730411 0.682905 -0.011877
153.896400 -91.791000 40.000000 -0.770441 -0.637415 -0.011085
153.505800 -91.791000 40.000000 -0.768174 -0.640145 -0.011133
153.115200 -91.791000 50.000000 0.713057 0.700868 -0.018284
151.943400 -91.791000 42.000000 -0.758845 -0.651247 -0.005663
151.943400 -91.791000 52.000000 0.703798 0.709971 -0.024695
149.990400 -91.791000 44.000000 -0.746451 -0.665441 -0.000000
149.209200 -91.791000 46.000000 -0.741247 -0.671207 0.005837
148.818600 -91.791000 54.000000 0.677403 0.734918 -0.031953
147.646800 -91.791000 48.000000 -0.730411 -0.682905 0.011877
147.256200 -91.791000 56.000000 0.663051 0.747557 -0.039003
145.303200 -91.791000 50.000000 -0.713057 -0.700868 0.018284
144.131400 -91.791000 52.000000 -0.703798 -0.709971 0.024695
142.959600 -91.791000 60.000000 0.619607 0.783020 -0.054471
141.006600 -91.791000 54.000000 -0.677403 -0.734918 0.031953
139.444200 -91.791000 56.000000 -0.663051 -0.747557 0.039003
135.147600 -91.791000 60.000000 -0.619607 -0.783020 0.054471
173.817000 -92.181600 12.000000 0.823537 0.561943 0.077509
173.426400 -92.181600 8.000000 0.821308 0.563738 0.087477
173.426400 -92.181600 10.000000 0.821648 0.563971 0.082651
173.426400 -92.181600 14.000000 0.822270 0.564398 0.072983
173.426400 -92.181600 16.000000 0.822552 0.564592 0.068140
173.035800 -92.181600 18.000000 0.821234 0.567042 0.063548
172.254600 -92.181600 20.000000 0.818260 0.571796 0.059151
171.864000 -92.181600 22.000000 0.816852 0.574271 0.054457
170.692200 -92.181600 24.000000 0.812033 0.581455 0.050125
169.911000 -92.181600 26.000000 0.808772 0.586360 0.045493
169.129800 -92.181600 28.000000 0.805410 0.591314 0.040780
166.786200 -92.181600 30.000000 0.794419 0.606267 0.036585
166.395600 -92.181600 32.000000 0.792621 0.608901 0.031495
166.005000 -92.181600 12.000000 -0.823537 -0.561943 -0.077509
165.614400 -92.181600 8.000000 -0.821308 -0.563738 -0.087477
165.614400 -92.181600 10.000000 -0.821648 -0.563971 -0.082651
165.614400 -92.181600 14.000000 -0.822270 -0.564398 -0.072983
165.614400 -92.181600 16.000000 -0.822552 -0.564592 -0.068140
165.614400 -92.181600 34.000000 0.788791 0.614092 0.026469
165.223800 -92.181600 18.000000 -0.821234 -0.567042 -0.063548
164.442600 -92.181600 20.000000 -0.818260 -0.571796 -0.059151
164.052000 -92.181600 22.000000 -0.816852 -0.574271 -0.054457
164.052000 -92.181600 36.000000 0.780688 0.624550 0.021536
162.880200 -92.181600 24.000000 -0.812033 -0.581455 -0.050125
162.099000 -92.181600 26.000000 -0.808772 -0.586360 -0.045493
162.099000 -92.181600 40.000000 0.769975 0.637979 0.011000
161.708400 -92.181600 40.000000 0.767721 0.640688 0.011046
161.317800 -92.181600 28.000000 -0.805410 -0.591314 -0.040780
159.755400 -92.181600 42.000000 0.756049 0.654490 0.005642
158.974200 -92.181600 30.000000 -0.794419 -0.606267 -0.036585
158.583600 -92.181600 32.000000 -0.792621 -0.608901 -0.031495
157.802400 -92.181600 34.000000 -0.788791 -0.614092 -0.026469
157.802400 -92.181600 44.000000 0.743581 0.668646 0.000000
157.411800 -92.181600 46.000000 0.740975 0.671508 -0.005789
156.240000 -92.181600 36.000000 -0.780688 -0.624550 -0.021536
155.458800 -92.181600 48.000000 0.727454 0.686054 -0.011829
154.287000 -92.181600 40.000000 -0.769975 -0.637979 -0.011000
153.896400 -92.181600 40.000000 -0.767721 -0.640688 -0.011046
153.505800 -92.181600 50.000000 0.713007 0.700922 -0.018127
151.943400 -92.181600 42.000000 -0.756049 -0.654490 -0.005642
151.943400 -92.181600 52.000000 0.700720 0.713013 -0.024587
149.990400 -92.181600 44.000000 -0.743581 -0.668646 -0.000000
149.599800 -92.181600 46.000000 -0.740975 -0.671508 0.005789
148.818600 -92.181600 54.000000 0.674230 0.737836 -0.031803
147.646800 -92.181600 48.000000 -0.727454 -0.686054 0.011829
147.256200 -92.181600 56.000000 0.659838 0.750404 -0.038814
145.693800 -92.181600 50.000000 -0.713007 -0.700922 0.018127
144.131400 -92.181600 52.000000 -0.700720 -0.713013 0.024587
143.350200 -92.181600 60.000000 0.620490 0.782356 -0.053956
141.006600 -92.181600 54.000000 -0.674230 -0.737836 0.031803
139.444200 -92.181600 56.000000 -0.659838 -0.750404 0.038814
135.538200 -92.181600 60.000000 -0.620490 -0.782356 0.053956
174.207600 -92.572200 12.000000 0.822857 0.563008 0.076993
173.817000 -92.572200 8.000000 0.820643 0.564796 0.086892
173.817000 -92.572200 10.000000 0.820978 0.565026 0.082098
173.817000 -92.572200 14.000000 0.821592 0.565448 0.072493
173.426400 -92.572200 14.000000 0.820012 0.567700 0.072782
173.426400 -92.572200 16.000000 0.820292 0.567894 0.067953
172.254600 -92.572200 20.000000 0.815954 0.575100 0.058985
171.864000 -92.572200 22.000000 0.814529 0.577575 0.054302
171.082800 -92.572200 24.000000 0.811377 0.582400 0.049778
170.301600 -92.572200 26.000000 0.808127 0.587273 0.045175
169.129800 -92.572200 28.000000 0.802983 0.594614 0.040657
167.176800 -92.572200 30.000000 0.793834 0.607049 0.036319
166.395600 -92.572200 12.000000 -0.822857 -0.563008 -0.076993
166.395600 -92.572200 32.000000 0.790089 0.612188 0.031394
166.005000 -92.572200 8.000000 -0.820643 -0.564796 -0.086892
166.005000 -92.572200 10.000000 -0.820978 -0.565026 -0.082098
166.005000 -92.572200 14.000000 -0.821592 -0.565448 -0.072493
166.005000 -92.572200 34.000000 0.788230 0.614819 0.026274
165.614400 -92.572200 14.000000 -0.820012 -0.567700 -0.072782
165.614400 -92.572200 16.000000 -0.820292 -0.567894 -0.067953
164.442600 -92.572200 20.000000 -0.815954 -0.575100 -0.058985
164.052000 -92.572200 22.000000 -0.814529 -0.577575 -0.054302
164.052000 -92.572200 38.000000 0.778143 0.627881 0.016100
163.270800 -92.572200 24.000000 -0.811377 -0.582400 -0.049778
162.489600 -92.572200 26.000000 -0.808127 -0.587273 -0.045175
162.099000 -92.572200 40.000000 0.767276 0.641223 0.010961
161.317800 -92.572200 28.000000 -0.802983 -0.594614 -0.040657
160.146000 -92.572200 42.000000 0.755677 0.654920 0.005598
159.364800 -92.572200 30.000000 -0.793834 -0.607049 -0.036319
158.583600 -92.572200 32.000000 -0.790089 -0.612188 -0.031394
158.193000 -92.572200 34.000000 -0.788230 -0.614819 -0.026274
158.193000 -92.572200 44.000000 0.743294 0.668965 0.000000
157.802400 -92.572200 46.000000 0.740707 0.671804 -0.005742
156.240000 -92.572200 38.000000 -0.778143 -0.627881 -0.016100
155.849400 -92.572200 48.000000 0.727288 0.686232 -0.011730
154.287000 -92.572200 40.000000 -0.767276 -0.641223 -0.010961
153.505800 -92.572200 50.000000 0.709994 0.703977 -0.018051
152.334000 -92.572200 42.000000 -0.755677 -0.654920 -0.005598
152.334000 -92.572200 52.000000 0.700777 0.712964 -0.024375
150.381000 -92.572200 44.000000 -0.743294 -0.668965 -0.000000
149.990400 -92.572200 46.000000 -0.740707 -0.671804 0.005742
149.209200 -92.572200 54.000000 0.674532 0.737572 -0.031520
148.037400 -92.572200 48.000000 -0.727288 -0.686232 0.011730
147.646800 -92.572200 56.000000 0.660284 0.750031 -0.038463
145.693800 -92.572200 50.000000 -0.709994 -0.703977 0.018051
144.522000 -92.572200 52.000000 -0.700777 -0.712964 0.024375
143.740800 -92.572200 60.000000 0.621355 0.781704 -0.053450
141.397200 -92.572200 54.000000 -0.674532 -0.737572 0.031520
139.834800 -92.572200 56.000000 -0.660284 -0.750031 0.038463
135.928800 -92.572200 60.000000 -0.621355 -0.781704 0.053450
174.207600 -92.962800 8.000000 0.819986 0.565838 0.086314
174.207600 -92.962800 12.000000 0.820628 0.566281 0.076784
174.207600 -92.962800 14.000000 0.820921 0.566483 0.072011
173.817000 -92.962800 8.000000 0.818406 0.568070 0.086655
173.817000 -92.962800 10.000000 0.818738 0.568300 0.081874
173.817000 -92.962800 14.000000 0.819346 0.568723 0.072295
173.817000 -92.962800 16.000000 0.819622 0.568914 0.067498
173.426400 -92.962800 18.000000 0.818289 0.571350 0.062945
172.254600 -92.962800 22.000000 0.813872 0.578536 0.053931
171.082800 -92.962800 24.000000 0.809025 0.585675 0.049633
170.301600 -92.962800 26.000000 0.805746 0.590547 0.045042
169.129800 -92.962800 28.000000 0.800557 0.597884 0.040535
167.176800 -92.962800 30.000000 0.791335 0.610310 0.036205
166.395600 -92.962800 8.000000 -0.819986 -0.565838 -0.086314
166.395600 -92.962800 12.000000 -0.820628 -0.566281 -0.076784
166.395600 -92.962800 14.000000 -0.820921 -0.566483 -0.072011
166.005000 -92.962800 8.000000 -0.818406 -0.568070 -0.086655
166.005000 -92.962800 10.000000 -0.818738 -0.568300 -0.081874
166.005000 -92.962800 14.000000 -0.819346 -0.568723 -0.072295
166.005000 -92.962800 16.000000 -0.819622 -0.568914 -0.067498
166.005000 -92.962800 34.000000 0.785685 0.618072 0.026189
165.614400 -92.962800 18.000000 -0.818289 -0.571350 -0.062945
164.833200 -92.962800 36.000000 0.779657 0.625847 0.021215
164.442600 -92.962800 22.000000 -0.813872 -0.578536 -0.053931
164.442600 -92.962800 36.000000 0.777564 0.628442 0.021303
163.270800 -92.962800 24.000000 -0.809025 -0.585675 -0.049633
162.489600 -92.962800 26.000000 -0.805746 -0.590547 -0.045042
162.489600 -92.962800 40.000000 0.766837 0.641750 0.010877
161.317800 -92.962800 28.000000 -0.800557 -0.597884 -0.040535
160.146000 -92.962800 42.000000 0.752910 0.658099 0.005577
159.364800 -92.962800 30.000000 -0.791335 -0.610310 -0.036205
158.583600 -92.962800 44.000000 0.743012 0.669278 0.000000
158.193000 -92.962800 34.000000 -0.785685 -0.618072 -0.026189
158.193000 -92.962800 46.000000 0.740443 0.672095 -0.005696
157.021200 -92.962800 36.000000 -0.779657 -0.625847 -0.021215
156.630600 -92.962800 36.000000 -0.777564 -0.628442 -0.021303
156.240000 -92.962800 48.000000 0.727125 0.686406 -0.011634
154.677600 -92.962800 40.000000 -0.766837 -0.641750 -0.010877
153.505800 -92.962800 50.000000 0.706993 0.706993 -0.017974
152.334000 -92.962800 42.000000 -0.752910 -0.658099 -0.005577
152.334000 -92.962800 52.000000 0.697739 0.715941 -0.024269
150.771600 -92.962800 44.000000 -0.743012 -0.669278 -0.000000
150.381000 -92.962800 46.000000 -0.740443 -0.672095 0.005696
149.209200 -92.962800 54.000000 0.671404 0.740427 -0.031374
148.428000 -92.962800 48.000000 -0.727125 -0.686406 0.011634
147.646800 -92.962800 56.000000 0.657118 0.752815 -0.038279
145.693800 -92.962800 50.000000 -0.706993 -0.706993 0.017974
144.522000 -92.962800 52.000000 -0.697739 -0.715941 0.024269
143.740800 -92.962800 60.000000 0.618121 0.784283 -0.053172
141.397200 -92.962800 54.000000 -0.671404 -0.740427 0.031374
139.834800 -92.962800 56.000000 -0.657118 -0.752815 0.038279
135.928800 -92.962800 60.000000 -0.618121 -0.784283 0.053172
174.598200 -93.353400 8.000000 0.819336 0.566866 0.085744
174.598200 -93.353400 12.000000 0.819969 0.567304 0.076276
174.207600 -93.353400 8.000000 0.817761 0.569085 0.086080
174.207600 -93.353400 14.000000 0.818688 0.569730 0.071815
173.817000 -93.353400 10.000000 0.816497 0.571548 0.081650
173.817000 -93.353400 16.000000 0.817374 0.572162 0.067313
173.426400 -93.353400 18.000000 0.816025 0.574598 0.062771
172.645200 -93.353400 20.000000 0.813001 0.579324 0.058419
172.254600 -93.353400 22.000000 0.811564 0.581784 0.053778
171.473400 -93.353400 24.000000 0.808392 0.586577 0.049292
170.301600 -93.353400 26.000000 0.803365 0.593791 0.044909
169.520400 -93.353400 28.000000 0.799955 0.598709 0.040249
167.176800 -93.353400 30.000000 0.788838 0.613541 0.036091
166.786200 -93.353400 8.000000 -0.819336 -0.566866 -0.085744
166.786200 -93.353400 12.000000 -0.819969 -0.567304 -0.076276
166.786200 -93.353400 32.000000 0.787016 0.616150 0.031066
166.395600 -93.353400 8.000000 -0.817761 -0.569085 -0.086080
166.395600 -93.353400 14.000000 -0.818688 -0.569730 -0.071815
166.005000 -93.353400 10.000000 -0.816497 -0.571548 -0.081650
166.005000 -93.353400 16.000000 -0.817374 -0.572162 -0.067313
165.614400 -93.353400 18.000000 -0.816025 -0.574598 -0.062771
164.833200 -93.353400 20.000000 -0.813001 -0.579324 -0.058419
164.442600 -93.353400 22.000000 -0.811564 -0.581784 -0.053778
164.442600 -93.353400 38.000000 0.775040 0.631711 0.015925
163.661400 -93.353400 24.000000 -0.808392 -0.586577 -0.049292
162.489600 -93.353400 26.000000 -0.803365 -0.593791 -0.044909
162.489600 -93.353400 40.000000 0.764163 0.644932 0.010839
161.708400 -93.353400 28.000000 -0.799955 -0.598709 -0.040249
160.536600 -93.353400 42.000000 0.752565 0.658495 0.005534
159.364800 -93.353400 30.000000 -0.788838 -0.613541 -0.036091
158.974200 -93.353400 32.000000 -0.787016 -0.616150 -0.031066
158.974200 -93.353400 44.000000 0.742734 0.669586 0.000000
158.583600 -93.353400 46.000000 0.740184 0.672381 -0.005650
156.630600 -93.353400 38.000000 -0.775040 -0.631711 -0.015925
156.630600 -93.353400 48.000000 0.726965 0.686578 -0.011539
154.677600 -93.353400 40.000000 -0.764163 -0.644932 -0.010839
153.505800 -93.353400 50.000000 0.704004 0.709970 -0.017898
152.724600 -93.353400 42.000000 -0.752565 -0.658495 -0.005534
152.334000 -93.353400 52.000000 0.694715 0.718879 -0.024164
151.162200 -93.353400 44.000000 -0.742734 -0.669586 -0.000000
150.771600 -93.353400 46.000000 -0.740184 -0.672381 0.005650
149.599800 -93.353400 54.000000 0.671728 0.740145 -0.031099
148.818600 -93.353400 48.000000 -0.726965 -0.686578 0.011539
147.646800 -93.353400 56.000000 0.653972 0.755559 -0.038095
145.693800 -93.353400 50.000000 -0.704004 -0.709970 0.017898
144.522000 -93.353400 52.000000 -0.694715 -0.718879 0.024164
143.740800 -93.353400 60.000000 0.614910 0.786821 -0.052896
141.787800 -93.353400 54.000000 -0.671728 -0.740145 0.031099
139.834800 -93.353400 56.000000 -0.653972 -0.755559 0.038095
135.928800 -93.353400 60.000000 -0.614910 -0.786821 0.052896
174.598200 -93.744000 8.000000 0.817123 0.570086 0.085513
174.598200 -93.744000 12.000000 0.817751 0.570524 0.076070
174.207600 -93.744000 10.000000 0.815860 0.572533 0.081109
174.207600 -93.744000 14.000000 0.816455 0.572951 0.071619
173.817000 -93.744000 16.000000 0.815125 0.575382 0.067128
173.817000 -93.744000 18.000000 0.815378 0.575561 0.062352
172.645200 -93.744000 20.000000 0.810708 0.582545 0.058254
172.254600 -93.744000 22.000000 0.809256 0.585004 0.053625
171.473400 -93.744000 24.000000 0.806055 0.589796 0.049150
170.692200 -93.744000 26.000000 0.802758 0.594635 0.044598
169.520400 -93.744000 28.000000 0.797546 0.601922 0.040128
167.176800 -93.744000 30.000000 0.786344 0.616740 0.035977
166.786200 -93.744000 8.000000 -0.817123 -0.570086 -0.085513
166.786200 -93.744000 12.000000 -0.817751 -0.570524 -0.076070
166.786200 -93.744000 32.000000 0.784506 0.619347 0.030967
166.395600 -93.744000 10.000000 -0.815860 -0.572533 -0.081109
166.395600 -93.744000 14.000000 -0.816455 -0.572951 -0.071619
166.395600 -93.744000 34.000000 0.782625 0.621954 0.025915
166.005000 -93.744000 16.000000 -0.815125 -0.575382 -0.067128
166.005000 -93.744000 18.000000 -0.815378 -0.575561 -0.062352
166.005000 -93.744000 34.000000 0.780604 0.624484 0.026020
164.833200 -93.744000 20.000000 -0.810708 -0.582545 -0.058254
164.833200 -93.744000 36.000000 0.774489 0.632236 0.021075
164.442600 -93.744000 22.000000 -0.809256 -0.585004 -0.053625
163.661400 -93.744000 24.000000 -0.806055 -0.589796 -0.049150
162.880200 -93.744000 26.000000 -0.802758 -0.594635 -0.044598
162.880200 -93.744000 40.000000 0.763750 0.645423 0.010757
161.708400 -93.744000 28.000000 -0.797546 -0.601922 -0.040128
160.536600 -93.744000 42.000000 0.749826 0.661612 0.005513
159.364800 -93.744000 30.000000 -0.786344 -0.616740 -0.035977
158.974200 -93.744000 32.000000 -0.784506 -0.619347 -0.030967
158.974200 -93.744000 44.000000 0.739940 0.672673 0.000000
158.583600 -93.744000 34.000000 -0.782625 -0.621954 -0.025915
158.583600 -93.744000 46.000000 0.737376 0.675459 -0.005629
158.193000 -93.744000 34.000000 -0.780604 -0.624484 -0.026020
157.021200 -93.744000 36.000000 -0.774489 -0.632236 -0.021075
156.630600 -93.744000 48.000000 0.724090 0.689610 -0.011493
155.068200 -93.744000 40.000000 -0.763750 -0.645423 -0.010757
153.505800 -93.744000 50.000000 0.701029 0.712910 -0.017823
152.724600 -93.744000 42.000000 -0.749826 -0.661612 -0.005513
152.334000 -93.744000 52.000000 0.691705 0.721779 -0.024059
151.162200 -93.744000 44.000000 -0.739940 -0.672673 -0.000000
150.771600 -93.744000 46.000000 -0.737376 -0.675459 0.005629
149.990400 -93.744000 54.000000 0.672046 0.739867 -0.030828
148.818600 -93.744000 48.000000 -0.724090 -0.689610 0.011493
148.037400 -93.744000 56.000000 0.654464 0.755150 -0.037758
145.693800 -93.744000 50.000000 -0.701029 -0.712910 0.017823
144.522000 -93.744000 52.000000 -0.691705 -0.721779 0.024059
144.131400 -93.744000 60.000000 0.615814 0.786146 -0.052410
142.178400 -93.744000 54.000000 -0.672046 -0.739867 0.030828
140.225400 -93.744000 56.000000 -0.654464 -0.755150 0.037758
136.319400 -93.744000 60.000000 -0.615814 -0.786146 0.052410
174.988800 -94.134600 12.000000 0.817111 0.571505 0.075571
174.598200 -94.134600 8.000000 0.000000 -1.000000 0.000000
174.598200 -94.134600 14.000000 0.815817 0.573918 0.071147
174.207600 -94.134600 8.000000 0.000000 -1.000000 0.000000
174.207600 -94.134600 10.000000 0.813631 0.575727 0.080887
